ply
format ascii 1.0
comment author: list.dzl
comment object: Point Cloud
element vertex 302
property float x
property float y
property float z
element face 0
property list uchar int vertex_indices
end_header
0.753708 0.336842 1.18106 
0.280262 0.0226639 1.20339 
0.444666 -0.581945 1.23112 
0.228896 -0.231772 1.21619 
-0.668582 -0.0490445 1.22178 
-0.197953 0.693674 1.18416 
0.897271 -0.547636 1.22308 
-0.467539 0.519582 1.19374 
-0.797298 -0.424463 1.24027 
-0.74956 0.355846 1.20525 
-0.564497 -0.649191 1.2467 
-0.283191 -0.64982 1.24235 
0.712355 0.0479073 1.19557 
0.603807 -0.313561 1.21681 
0.645412 -0.827972 1.24614 
0.287314 -0.956419 1.25461 
-0.554929 -0.939068 1.26054 
0.963923 -0.971651 1.25656 
-0.194292 -1.06439 1.26094 
0.471859 0.278138 1.18905 
0.0876356 0.460317 1.18718 
-0.675283 0.765698 1.18932 
0.0221691 0.844889 1.17712 
-0.389824 0.979459 1.17916 
0.341241 1.0048 1.16931 
-0.201849 1.29962 0.982423 
-0.419601 0.129986 1.20893 
0.0357875 0.117585 1.20184 
0.0288789 1.28226 0.702858 
0.442516 1.27479 0.645326 
0.700381 1.09442 1.16085 
0.623665 1.29166 0.960131 
-0.331146 1.27128 0.406921 
0.737261 0.764288 1.16926 
0.240286 1.26473 0.395972 
-0.65033 1.27418 0.377173 
-1.06949 1.30767 0.978275 
-0.338159 1.28513 0.688461 
0.3331 0.696769 1.17778 
-1.00664 0.667079 1.19688 
-0.0625583 1.26772 0.412479 
0.224246 1.29628 0.97875 
-1.0179 1.28112 0.429263 
-1.47345 1.15624 1.19126 
-0.202969 0.323121 1.19818 
-1.31528 0.836921 1.19578 
-0.987971 0.971136 1.18786 
-0.974047 0.162987 1.21607 
-0.672762 1.15688 1.17922 
-1.22959 0.43057 1.20768 
-0.638948 1.30285 0.97923 
-1.05822 -0.168485 1.2318 
0.0045326 -0.457288 1.22947 
-1.07181 -0.642888 1.25364 
0.0574375 -0.746347 1.24388 
-0.90631 -0.922029 1.2651 
-1.05172 -1.15188 1.27885 
-1.26821 -0.887999 1.26845 
-1.25811 -0.397107 1.24465 
-0.124396 -0.0807675 1.21356 
-1.491 -0.628929 1.25903 
-1.42304 -0.0913065 1.23238 
-1.62741 -0.924573 1.27665 
-0.38252 -0.325482 1.22822 
-1.44708 0.192762 1.22055 
-1.47897 1.31564 1.00191 
-1.29636 1.29934 0.747318 
-0.950509 1.29506 0.739761 
-0.661541 1.28585 0.652702 
-1.70052 1.30739 0.770066 
-1.8845 1.32308 1.01877 
-1.77724 0.926182 1.20176 
-1.71508 1.29228 0.45617 
-1.71914 0.380371 1.21605 
-1.68171 -0.297829 1.2447 
-1.87228 0.0351073 1.23418 
-1.87109 -0.722515 1.27419 
-2.05198 -0.310631 1.2527 
-2.20541 -0.116801 1.25033 
-2.37556 -0.413237 1.26638 
-2.52505 -0.0562327 1.2532 
-2.72941 -0.757168 1.29369 
-2.29805 0.241452 1.23464 
-2.75552 -0.311691 1.27336 
-2.04378 0.376498 1.22245 
-2.67866 0.515791 1.23578 
-2.39066 0.62869 1.22024 
-1.57533 0.656739 1.20374 
-2.02571 0.71503 1.21031 
-2.27088 0.992416 1.21187 
-2.62397 0.93785 1.22344 
-2.29695 1.33193 1.00563 
-2.71475 1.34233 1.04539 
-2.04133 1.31032 0.732444 
-2.35611 1.30892 0.658729 
-1.37205 1.28633 0.44108 
-2.10435 1.28912 0.390056 
-2.66094 1.3231 0.734615 
-2.38587 1.2946 0.326055 
-2.93158 0.971794 1.09373 
-2.66791 1.30729 0.429205 
-2.92265 0.460588 1.09871 
-2.91809 0.976488 0.669587 
-2.67304 1.2935 0.107867 
-2.92893 0.680735 0.855605 
-2.91622 0.807631 0.393138 
-2.68734 1.27879 -0.242153 
-2.11202 1.27168 -0.0111141 
-2.91971 1.00701 -0.0174879 
-2.91568 0.487203 0.348003 
-2.9161 0.36102 0.611005 
-2.75547 0.188089 1.24879 
-2.92181 0.135324 0.808413 
-2.93637 -0.00490309 1.12276 
-2.91481 1.19768 0.387128 
-2.93369 -0.219327 0.754552 
-2.94628 -0.385069 1.1542 
-2.92148 0.105895 0.394935 
-2.94301 -0.517199 0.916733 
-2.93377 -0.220895 0.40183 
-2.96254 -0.726685 0.695692 
-2.95497 -0.89521 1.15986 
-2.94483 -0.485369 0.455993 
-2.96886 -0.900208 0.456532 
-2.98772 -1.08495 0.732999 
-2.93501 -0.127896 0.0951356 
-2.96422 -0.739346 0.179349 
-2.97746 -1.03524 -0.0179844 
-2.94672 -0.4488 0.0316673 
-2.9231 0.297908 0.0922157 
-2.93308 0.0296197 -0.238094 
-2.9659 -0.804807 -0.175564 
-2.92965 0.269148 -0.270258 
-2.99505 -1.18422 -0.365376 
-2.94728 -0.262284 -0.355823 
-2.95684 -0.535568 -0.364702 
-2.95017 -0.078044 -0.608539 
-2.96289 -0.428537 -0.664592 
-2.93666 0.348529 -0.626653 
-2.99161 -0.988148 -0.624321 
-2.92185 0.685446 0.0387695 
-2.93161 0.750042 -0.566146 
-2.93927 0.581894 -0.818011 
-2.93254 1.06458 -0.5984 
-2.70325 1.2707 -0.574141 
-2.39907 1.28043 0.0195985 
-2.39223 1.26753 -0.300564 
-2.93371 1.02323 -0.984146 
-2.72196 1.25571 -0.9346 
-2.92629 0.530533 -0.29209 
-2.43655 1.24491 -0.883264 
-2.94883 0.137905 -0.782024 
-2.77937 0.945684 -1.12815 
-2.95679 0.321527 -1.0263 
-2.92654 0.815824 -0.302153 
-2.80506 0.617691 -1.12167 
-2.96501 -0.135485 -0.915498 
-2.89249 -0.970367 -1.08382 
-2.97825 -0.717338 -0.862221 
-3.01237 -1.23744 -0.85464 
-2.83902 -0.127597 -1.10165 
-2.82609 -0.504855 -1.09303 
-2.78427 0.143409 -1.10643 
-2.55877 0.00720623 -1.10032 
-2.57155 -0.316605 -1.09288 
-2.64256 -0.739914 -1.08354 
-2.60498 -1.04331 -1.08337 
-2.28216 0.0161511 -1.09711 
-2.25221 -0.488449 -1.09344 
-2.21578 -0.915265 -1.08426 
-2.58372 0.416534 -1.11337 
-2.20473 0.373123 -1.11124 
-2.15957 0.732193 -1.12446 
-2.39998 1.25489 -0.583789 
-1.8654 0.371249 -1.11951 
-1.89548 0.0460055 -1.10892 
-2.00981 -0.20329 -1.10152 
-1.9007 -0.560893 -1.092 
-1.35304 0.597647 -1.13954 
-1.45031 -0.292262 -1.10654 
-1.41628 0.939398 -1.15523 
-1.45419 0.102857 -1.11678 
-1.39988 -0.671181 -1.09673 
-1.75474 -0.933432 -1.0888 
-1.31742 -1.01717 -1.08944 
-1.16031 -0.181342 -1.11387 
-0.930901 -0.774673 -1.10016 
-1.06347 -0.513036 -1.10611 
-1.19466 0.278408 -1.12795 
-0.89576 0.070059 -1.12492 
-0.79605 -0.327397 -1.11668 
-0.638797 -0.63592 -1.10981 
-1.15156 0.809299 -1.1521 
-0.59718 0.683602 -1.15434 
-0.549249 1.03173 -1.17141 
-1.38499 1.23295 -0.993925 
-1.01188 1.22711 -0.963178 
-0.713187 1.22339 -0.950539 
-0.42221 1.21879 -0.955143 
-1.3527 1.24121 -0.728693 
-1.0765 1.2393 -0.69029 
-0.685687 1.23333 -0.660777 
-0.251312 0.556273 -1.15371 
-0.348635 1.22811 -0.671545 
-0.632021 0.379197 -1.13952 
-0.0352417 1.21369 -0.976804 
-0.360787 0.250518 -1.14028 
0.298711 0.936704 -1.17768 
-0.0301349 0.758565 -1.16609 
-0.175492 -0.0194861 -1.13298 
-0.858887 0.921162 -1.16116 
-0.362715 -0.436411 -1.11926 
-0.460251 -0.117544 -1.1268 
-0.475975 -0.857356 -1.10646 
-0.846026 -1.11059 -1.09236 
-0.397265 -1.13239 -1.09825 
-0.15226 -0.632615 -1.11583 
-0.968487 0.514185 -1.14068 
0.0303635 0.176115 -1.14263 
-0.000409892 1.22397 -0.653008 
0.33323 1.20926 -0.957087 
0.348376 1.21739 -0.696171 
0.700204 1.20522 -0.910095 
0.166621 0.482032 -1.15717 
0.187882 -0.0980708 -1.13645 
0.479594 0.544551 -1.16397 
-0.0704846 -0.325011 -1.12668 
0.527303 -0.609478 -1.12716 
0.198436 -0.469155 -1.12515 
0.449745 0.103283 -1.1469 
-0.0117164 -0.931548 -1.11232 
0.298191 -0.799702 -1.11963 
0.435303 -0.269127 -1.13442 
0.678992 -0.074548 -1.14471 
0.912986 -0.734413 -1.13213 
0.770419 -0.419125 -1.1367 
0.654266 -1.01257 -1.12372 
0.815896 0.301147 -1.15825 
1.01951 0.532986 -1.17146 
1.18834 0.251252 -1.15976 
0.746416 0.733878 -1.1758 
1.04195 0.95535 -1.1887 
0.994789 1.19901 -0.975405 
0.644103 1.2127 -0.677323 
1.33296 0.665022 -1.17939 
1.01256 -0.0830133 -1.15235 
1.20763 -0.42782 -1.14657 
1.06164 -1.04871 -1.12804 
1.32524 -0.109142 -1.15697 
1.55724 -1.05369 -1.00844 
1.30991 -0.750505 -1.1397 
1.5521 -0.168991 -1.0569 
1.55665 -0.569112 -1.01516 
1.55049 0.0137048 -0.851828 
1.55033 -0.310739 -0.793173 
1.55711 -0.785413 -0.782761 
1.55134 -0.582127 -0.481316 
1.54741 -0.272254 -0.454768 
1.5447 0.0644945 -0.407614 
1.55606 -0.991027 -0.368733 
1.54726 0.280884 -1.03994 
1.54457 0.388395 -0.488426 
1.55006 0.448302 -0.817164 
1.54531 0.685621 -0.290736 
1.54867 0.250333 -0.122749 
1.54947 0.593199 0.0304423 
1.54989 -0.109842 -0.111413 
1.55325 -0.423799 -0.167037 
1.55815 -0.515516 0.158703 
1.55821 -0.186758 0.1954 
1.55959 0.627784 0.588659 
1.56339 -0.552799 0.558514 
1.56215 0.279348 0.567281 
1.55772 -0.736284 -0.0788472 
1.56244 -0.830536 0.492602 
1.56385 -0.279283 0.50612 
1.56495 -0.972916 0.71861 
1.5698 -1.04695 0.122834 
1.57037 0.218489 0.885841 
1.57302 -0.34519 0.906928 
1.57429 -0.0394566 1.02292 
1.38645 -0.897566 1.24108 
1.57698 -0.622905 1.09439 
1.38031 0.253612 1.17843 
1.57521 -1.08721 1.01418 
1.4124 -0.0704986 1.19535 
1.35079 -0.465841 1.21534 
1.12034 0.144392 1.18442 
1.33495 0.532688 1.1678 
1.56357 0.714072 0.867406 
1.4602 0.788347 1.15831 
1.06294 0.567094 1.17014 
1.22901 0.861689 1.16012 
1.41208 1.09375 1.14581 
1.44813 1.26595 0.915181 
0.986776 0.873097 1.16268 
1.1665 -0.267716 1.20639 
0.948028 -0.142367 1.20285 
1.06097 1.28732 0.965251 
0.786188 1.26739 0.624274 
0.62199 1.25594 0.376093 
1.1219 1.2652 0.616852 
